ply
format ascii 1.0
element vertex 1225
property float x
property float y
property float z
property uchar red
property uchar green
property uchar blue
element face 0
end_header
0.176768 -1.393939 0.681818 90 113 104
0.176768 -1.454545 0.681818 90 85 104
0.151515 -1.424242 0.707071 85 99 108
0.176768 -1.454545 0.707071 90 85 108
0.151515 -1.424242 0.732323 85 99 112
0.176768 -1.454545 0.732323 90 85 112
0.151515 -1.424242 0.757576 85 99 116
0.176768 -1.454545 0.757576 90 85 116
0.151515 -1.424242 0.782828 85 99 120
0.176768 -1.454545 0.782828 90 85 120
0.151515 -1.424242 0.808081 85 99 124
0.176768 -1.454545 0.808081 90 85 124
0.176768 -1.424242 0.820707 90 99 126
0.151515 -1.424242 0.883838 85 99 135
0.176768 -1.454545 0.883838 90 85 135
0.176768 -1.424242 0.871212 90 99 133
0.151515 -1.424242 0.909091 85 99 139
0.176768 -1.454545 0.909091 90 85 139
0.176768 -1.424242 0.921717 90 99 141
0.151515 -1.424242 0.959596 85 99 147
0.176768 -1.454545 0.959596 90 85 147
0.176768 -1.424242 0.946970 90 99 145
0.151515 -1.424242 0.984848 85 99 151
0.176768 -1.393939 0.984848 90 113 151
0.176768 -1.454545 0.984848 90 85 151
0.151515 -1.424242 1.010101 85 99 155
0.176768 -1.393939 1.010101 90 113 155
0.176768 -1.454545 1.010101 90 85 155
0.151515 -1.424242 1.035354 85 99 159
0.176768 -1.393939 1.035354 90 113 159
0.176768 -1.454545 1.035354 90 85 159
0.176768 -1.393939 1.060606 90 113 163
0.151515 -1.424242 1.111111 85 99 171
0.151515 -1.424242 1.136364 85 99 175
0.151515 -1.424242 1.161616 85 99 179
0.151515 -1.424242 1.186869 85 99 182
0.176768 -1.454545 1.186869 90 85 182
0.151515 -1.424242 1.212121 85 99 186
0.176768 -1.454545 1.212121 90 85 186
0.151515 -1.424242 1.237374 85 99 190
0.176768 -1.454545 1.237374 90 85 190
0.151515 -1.424242 1.262626 85 99 194
0.176768 -1.454545 1.262626 90 85 194
0.151515 -1.424242 1.287879 85 99 198
0.176768 -1.454545 1.287879 90 85 198
0.176768 -1.424242 1.300505 90 99 200
0.151515 -1.363636 0.707071 85 128 108
0.176768 -1.333333 0.707071 90 142 108
0.176768 -1.363636 0.694444 90 128 106
0.151515 -1.363636 0.732323 85 128 112
0.176768 -1.333333 0.732323 90 142 112
0.151515 -1.363636 0.757576 85 128 116
0.176768 -1.333333 0.757576 90 142 116
0.151515 -1.363636 0.782828 85 128 120
0.176768 -1.333333 0.782828 90 142 120
0.151515 -1.363636 0.808081 85 128 124
0.176768 -1.333333 0.808081 90 142 124
0.151515 -1.363636 0.833333 85 128 128
0.176768 -1.333333 0.833333 90 142 128
0.176768 -1.393939 0.833333 90 113 128
0.151515 -1.363636 0.858586 85 128 131
0.176768 -1.333333 0.858586 90 142 131
0.176768 -1.393939 0.858586 90 113 131
0.151515 -1.363636 0.883838 85 128 135
0.176768 -1.333333 0.883838 90 142 135
0.151515 -1.363636 0.909091 85 128 139
0.176768 -1.333333 0.909091 90 142 139
0.151515 -1.363636 0.934343 85 128 143
0.176768 -1.333333 0.934343 90 142 143
0.176768 -1.393939 0.934343 90 113 143
0.151515 -1.363636 0.959596 85 128 147
0.176768 -1.333333 0.959596 90 142 147
0.176768 -1.363636 0.972222 90 128 149
0.151515 -1.363636 1.085859 85 128 167
0.176768 -1.333333 1.085859 90 142 167
0.176768 -1.363636 1.073232 90 128 165
0.151515 -1.363636 1.111111 85 128 171
0.176768 -1.333333 1.111111 90 142 171
0.151515 -1.363636 1.287879 85 128 198
0.151515 -1.363636 1.313131 85 128 202
0.176768 -1.393939 1.313131 90 113 202
0.176768 -1.363636 1.325758 90 128 204
0.176768 -1.303030 1.123737 90 156 173
0.151515 -1.303030 1.287879 85 156 198
0.151515 -1.303030 1.313131 85 156 202
0.151515 -1.303030 1.338384 85 156 206
0.176768 -1.333333 1.338384 90 142 206
0.151515 -1.303030 1.363636 85 156 210
0.176768 -1.333333 1.363636 90 142 210
0.151515 -1.303030 1.388889 85 156 214
0.176768 -1.272727 1.388889 90 170 214
0.176768 -1.333333 1.388889 90 142 214
0.176768 -1.333333 1.414141 90 142 218
0.176768 -1.333333 1.439394 90 142 222
0.176768 -1.333333 1.464646 90 142 226
0.176768 -1.333333 1.489899 90 142 230
0.176768 -1.333333 1.515152 90 142 233
0.176768 -1.333333 1.540404 90 142 237
0.176768 -1.333333 1.565657 90 142 241
0.176768 -1.333333 1.590909 90 142 245
0.202020 -1.303030 1.616162 96 156 249
0.151515 -1.303030 1.616162 85 156 249
0.176768 -1.333333 1.616162 90 142 249
0.176768 -1.303030 1.628788 90 156 251
0.202020 -1.242424 1.111111 96 184 171
0.151515 -1.242424 1.111111 85 184 171
0.176768 -1.212121 1.111111 90 198 171
0.176768 -1.272727 1.111111 90 170 171
0.176768 -1.242424 1.098485 90 184 169
0.202020 -1.242424 1.136364 96 184 175
0.176768 -1.212121 1.136364 90 198 175
0.202020 -1.242424 1.161616 96 184 179
0.176768 -1.212121 1.161616 90 198 179
0.176768 -1.212121 1.186869 90 198 182
0.176768 -1.212121 1.212121 90 198 186
0.176768 -1.212121 1.237374 90 198 190
0.176768 -1.212121 1.262626 90 198 194
0.176768 -1.212121 1.287879 90 198 198
0.176768 -1.212121 1.313131 90 198 202
0.151515 -1.242424 1.338384 85 184 206
0.176768 -1.212121 1.338384 90 198 206
0.151515 -1.242424 1.363636 85 184 210
0.176768 -1.212121 1.363636 90 198 210
0.176768 -1.242424 1.376263 90 184 212
0.151515 -1.242424 1.414141 85 184 218
0.176768 -1.212121 1.414141 90 198 218
0.176768 -1.242424 1.401515 90 184 216
0.176768 -1.212121 1.439394 90 198 222
0.202020 -1.242424 1.641414 96 184 253
0.176768 -1.212121 1.641414 90 198 253
0.176768 -1.272727 1.641414 90 170 253
0.176768 -1.242424 1.654040 90 184 255
0.151515 -1.181818 1.464646 85 213 226
0.176768 -1.151515 1.464646 90 227 226
0.176768 -1.181818 1.452020 90 213 224
0.176768 -1.151515 1.489899 90 227 230
0.176768 -1.151515 1.515152 90 227 233
0.176768 -1.151515 1.540404 90 227 237
0.176768 -1.151515 1.565657 90 227 241
0.176768 -1.151515 1.590909 90 227 245
0.176768 -1.151515 1.616162 90 227 249
0.176768 -1.181818 1.628788 90 213 251
0.227273 -1.575758 0.025253 101 28 2
0.227273 -1.636364 0.025253 101 0 2
0.202020 -1.606061 0.050505 96 14 6
0.227273 -1.575758 0.050505 101 28 6
0.227273 -1.636364 0.050505 101 0 6
0.202020 -1.606061 0.075758 96 14 10
0.227273 -1.575758 0.075758 101 28 10
0.227273 -1.636364 0.075758 101 0 10
0.202020 -1.606061 0.101010 96 14 14
0.227273 -1.575758 0.101010 101 28 14
0.227273 -1.636364 0.101010 101 0 14
0.227273 -1.606061 0.113636 101 14 16
0.252525 -1.545455 0.429293 106 43 65
0.202020 -1.545455 0.429293 96 43 65
0.227273 -1.575758 0.429293 101 28 65
0.227273 -1.545455 0.416667 101 43 63
0.202020 -1.545455 0.454545 96 43 69
0.227273 -1.575758 0.454545 101 28 69
0.202020 -1.545455 0.479798 96 43 73
0.227273 -1.575758 0.479798 101 28 73
0.227273 -1.545455 0.492424 101 43 75
0.202020 -1.545455 1.085859 96 43 167
0.227273 -1.575758 1.085859 101 28 167
0.227273 -1.545455 1.098485 101 43 169
0.227273 -1.545455 1.073232 101 43 165
0.202020 -1.484848 0.303030 96 71 45
0.227273 -1.454545 0.303030 101 85 45
0.227273 -1.515152 0.303030 101 57 45
0.227273 -1.484848 0.290404 101 71 43
0.202020 -1.484848 0.328283 96 71 49
0.227273 -1.454545 0.328283 101 85 49
0.227273 -1.515152 0.328283 101 57 49
0.202020 -1.484848 0.353535 96 71 53
0.227273 -1.454545 0.353535 101 85 53
0.227273 -1.515152 0.353535 101 57 53
0.202020 -1.484848 0.378788 96 71 57
0.227273 -1.454545 0.378788 101 85 57
0.227273 -1.515152 0.378788 101 57 57
0.202020 -1.484848 0.404040 96 71 61
0.227273 -1.454545 0.404040 101 85 61
0.227273 -1.515152 0.404040 101 57 61
0.202020 -1.484848 0.429293 96 71 65
0.227273 -1.454545 0.429293 101 85 65
0.202020 -1.484848 0.454545 96 71 69
0.202020 -1.484848 0.479798 96 71 73
0.202020 -1.484848 0.505051 96 71 77
0.227273 -1.515152 0.505051 101 57 77
0.202020 -1.484848 0.530303 96 71 80
0.227273 -1.515152 0.530303 101 57 80
0.202020 -1.484848 0.555556 96 71 84
0.227273 -1.515152 0.555556 101 57 84
0.202020 -1.484848 0.580808 96 71 88
0.227273 -1.515152 0.580808 101 57 88
0.202020 -1.484848 0.606061 96 71 92
0.227273 -1.515152 0.606061 101 57 92
0.202020 -1.484848 0.631313 96 71 96
0.227273 -1.515152 0.631313 101 57 96
0.202020 -1.484848 0.656566 96 71 100
0.227273 -1.515152 0.656566 101 57 100
0.202020 -1.484848 0.681818 96 71 104
0.227273 -1.515152 0.681818 101 57 104
0.202020 -1.484848 0.707071 96 71 108
0.227273 -1.515152 0.707071 101 57 108
0.202020 -1.484848 0.732323 96 71 112
0.227273 -1.515152 0.732323 101 57 112
0.202020 -1.484848 0.757576 96 71 116
0.227273 -1.515152 0.757576 101 57 116
0.202020 -1.484848 0.782828 96 71 120
0.227273 -1.515152 0.782828 101 57 120
0.202020 -1.484848 0.808081 96 71 124
0.227273 -1.515152 0.808081 101 57 124
0.202020 -1.484848 0.833333 96 71 128
0.227273 -1.515152 0.833333 101 57 128
0.202020 -1.484848 0.858586 96 71 131
0.227273 -1.515152 0.858586 101 57 131
0.202020 -1.484848 0.883838 96 71 135
0.227273 -1.515152 0.883838 101 57 135
0.202020 -1.484848 0.909091 96 71 139
0.227273 -1.515152 0.909091 101 57 139
0.202020 -1.484848 0.934343 96 71 143
0.227273 -1.515152 0.934343 101 57 143
0.202020 -1.484848 0.959596 96 71 147
0.227273 -1.515152 0.959596 101 57 147
0.202020 -1.484848 0.984848 96 71 151
0.227273 -1.515152 0.984848 101 57 151
0.202020 -1.484848 1.010101 96 71 155
0.227273 -1.515152 1.010101 101 57 155
0.202020 -1.484848 1.035354 96 71 159
0.227273 -1.515152 1.035354 101 57 159
0.227273 -1.515152 1.060606 101 57 163
0.227273 -1.515152 1.111111 101 57 171
0.227273 -1.515152 1.136364 101 57 175
0.227273 -1.515152 1.161616 101 57 179
0.202020 -1.484848 1.186869 96 71 182
0.227273 -1.515152 1.186869 101 57 182
0.202020 -1.484848 1.212121 96 71 186
0.227273 -1.515152 1.212121 101 57 186
0.202020 -1.484848 1.237374 96 71 190
0.227273 -1.515152 1.237374 101 57 190
0.202020 -1.484848 1.262626 96 71 194
0.227273 -1.515152 1.262626 101 57 194
0.227273 -1.484848 1.275253 101 71 196
0.202020 -1.424242 0.454545 96 99 69
0.227273 -1.424242 0.441919 101 99 67
0.202020 -1.424242 0.479798 96 99 73
0.202020 -1.424242 0.505051 96 99 77
0.202020 -1.424242 0.833333 96 99 128
0.202020 -1.424242 0.858586 96 99 131
0.202020 -1.424242 0.934343 96 99 143
0.227273 -1.454545 1.287879 101 85 198
0.202020 -1.424242 1.313131 96 99 202
0.227273 -1.454545 1.313131 101 85 202
0.227273 -1.424242 1.325758 101 99 204
0.202020 -1.363636 0.454545 96 128 69
0.227273 -1.333333 0.454545 101 142 69
0.227273 -1.363636 0.441919 101 128 67
0.202020 -1.363636 0.479798 96 128 73
0.227273 -1.333333 0.479798 101 142 73
0.202020 -1.363636 0.505051 96 128 77
0.227273 -1.333333 0.505051 101 142 77
0.202020 -1.363636 0.530303 96 128 80
0.227273 -1.333333 0.530303 101 142 80
0.202020 -1.363636 0.555556 96 128 84
0.227273 -1.333333 0.555556 101 142 84
0.202020 -1.363636 0.580808 96 128 88
0.227273 -1.333333 0.580808 101 142 88
0.202020 -1.363636 0.606061 96 128 92
0.227273 -1.333333 0.606061 101 142 92
0.202020 -1.363636 0.631313 96 128 96
0.227273 -1.333333 0.631313 101 142 96
0.202020 -1.363636 0.656566 96 128 100
0.227273 -1.333333 0.656566 101 142 100
0.202020 -1.363636 0.681818 96 128 104
0.227273 -1.333333 0.681818 101 142 104
0.202020 -1.363636 0.984848 96 128 151
0.227273 -1.333333 0.984848 101 142 151
0.202020 -1.363636 1.010101 96 128 155
0.227273 -1.333333 1.010101 101 142 155
0.202020 -1.363636 1.035354 96 128 159
0.227273 -1.333333 1.035354 101 142 159
0.202020 -1.363636 1.060606 96 128 163
0.227273 -1.333333 1.060606 101 142 163
0.227273 -1.333333 1.085859 101 142 167
0.202020 -1.363636 1.338384 96 128 206
0.227273 -1.393939 1.338384 101 113 206
0.202020 -1.363636 1.363636 96 128 210
0.227273 -1.393939 1.363636 101 113 210
0.202020 -1.363636 1.388889 96 128 214
0.227273 -1.393939 1.388889 101 113 214
0.227273 -1.363636 1.401515 101 128 216
0.202020 -1.303030 0.707071 96 156 108
0.227273 -1.272727 0.707071 101 170 108
0.227273 -1.303030 0.694444 101 156 106
0.202020 -1.303030 0.732323 96 156 112
0.227273 -1.272727 0.732323 101 170 112
0.202020 -1.303030 0.757576 96 156 116
0.227273 -1.272727 0.757576 101 170 116
0.202020 -1.303030 0.782828 96 156 120
0.227273 -1.272727 0.782828 101 170 120
0.202020 -1.303030 0.808081 96 156 124
0.227273 -1.272727 0.808081 101 170 124
0.202020 -1.303030 0.833333 96 156 128
0.227273 -1.272727 0.833333 101 170 128
0.202020 -1.303030 0.858586 96 156 131
0.227273 -1.272727 0.858586 101 170 131
0.202020 -1.303030 0.883838 96 156 135
0.227273 -1.272727 0.883838 101 170 135
0.202020 -1.303030 0.909091 96 156 139
0.227273 -1.272727 0.909091 101 170 139
0.202020 -1.303030 0.934343 96 156 143
0.227273 -1.272727 0.934343 101 170 143
0.202020 -1.303030 0.959596 96 156 147
0.227273 -1.272727 0.959596 101 170 147
0.227273 -1.303030 0.972222 101 156 149
0.202020 -1.303030 1.111111 96 156 171
0.227273 -1.272727 1.111111 101 170 171
0.227273 -1.303030 1.098485 101 156 169
0.227273 -1.272727 1.136364 101 170 175
0.227273 -1.272727 1.161616 101 170 179
0.227273 -1.333333 1.414141 101 142 218
0.227273 -1.333333 1.439394 101 142 222
0.227273 -1.333333 1.464646 101 142 226
0.227273 -1.333333 1.489899 101 142 230
0.227273 -1.333333 1.515152 101 142 233
0.227273 -1.333333 1.540404 101 142 237
0.252525 -1.303030 1.565657 106 156 241
0.227273 -1.333333 1.565657 101 142 241
0.252525 -1.303030 1.590909 106 156 245
0.227273 -1.333333 1.590909 101 142 245
0.227273 -1.303030 1.603535 101 156 247
0.252525 -1.242424 1.186869 106 184 182
0.227273 -1.212121 1.186869 101 198 182
0.227273 -1.242424 1.174242 101 184 180
0.227273 -1.212121 1.212121 101 198 186
0.227273 -1.212121 1.237374 101 198 190
0.227273 -1.212121 1.262626 101 198 194
0.227273 -1.212121 1.287879 101 198 198
0.227273 -1.212121 1.313131 101 198 202
0.227273 -1.212121 1.338384 101 198 206
0.227273 -1.212121 1.363636 101 198 210
0.202020 -1.242424 1.388889 96 184 214
0.227273 -1.212121 1.388889 101 198 214
0.227273 -1.212121 1.414141 101 198 218
0.227273 -1.212121 1.439394 101 198 222
0.252525 -1.242424 1.489899 106 184 230
0.227273 -1.272727 1.616162 101 170 249
0.227273 -1.242424 1.628788 101 184 251
0.252525 -1.181818 1.464646 106 213 226
0.227273 -1.151515 1.464646 101 227 226
0.227273 -1.181818 1.452020 101 213 224
0.227273 -1.151515 1.540404 101 227 237
0.227273 -1.151515 1.565657 101 227 241
0.227273 -1.151515 1.590909 101 227 245
0.227273 -1.151515 1.616162 101 227 249
0.227273 -1.181818 1.628788 101 213 251
0.252525 -1.121212 1.489899 106 241 230
0.202020 -1.121212 1.489899 96 241 230
0.227273 -1.090909 1.489899 101 255 230
0.227273 -1.121212 1.477273 101 241 228
0.252525 -1.121212 1.515152 106 241 233
0.202020 -1.121212 1.515152 96 241 233
0.227273 -1.090909 1.515152 101 255 233
0.227273 -1.121212 1.527778 101 241 235
0.303030 -1.606061 0.025253 117 14 2
0.277778 -1.636364 0.025253 112 0 2
0.277778 -1.606061 0.012626 112 14 0
0.303030 -1.606061 0.050505 117 14 6
0.277778 -1.636364 0.050505 112 0 6
0.303030 -1.606061 0.075758 117 14 10
0.277778 -1.636364 0.075758 112 0 10
0.303030 -1.606061 0.101010 117 14 14
0.277778 -1.636364 0.101010 112 0 14
0.277778 -1.606061 0.113636 112 14 16
0.303030 -1.545455 0.025253 117 43 2
0.252525 -1.545455 0.025253 106 43 2
0.277778 -1.515152 0.025253 112 57 2
0.277778 -1.545455 0.012626 112 43 0
0.303030 -1.545455 0.050505 117 43 6
0.252525 -1.545455 0.050505 106 43 6
0.277778 -1.515152 0.050505 112 57 6
0.303030 -1.545455 0.075758 117 43 10
0.252525 -1.545455 0.075758 106 43 10
0.277778 -1.515152 0.075758 112 57 10
0.303030 -1.545455 0.101010 117 43 14
0.252525 -1.545455 0.101010 106 43 14
0.277778 -1.515152 0.101010 112 57 14
0.303030 -1.545455 0.126263 117 43 18
0.252525 -1.545455 0.126263 106 43 18
0.277778 -1.515152 0.126263 112 57 18
0.277778 -1.575758 0.126263 112 28 18
0.303030 -1.545455 0.151515 117 43 22
0.252525 -1.545455 0.151515 106 43 22
0.277778 -1.515152 0.151515 112 57 22
0.277778 -1.575758 0.151515 112 28 22
0.303030 -1.545455 0.176768 117 43 26
0.252525 -1.545455 0.176768 106 43 26
0.277778 -1.515152 0.176768 112 57 26
0.277778 -1.575758 0.176768 112 28 26
0.303030 -1.545455 0.202020 117 43 29
0.252525 -1.545455 0.202020 106 43 29
0.277778 -1.515152 0.202020 112 57 29
0.277778 -1.575758 0.202020 112 28 29
0.303030 -1.545455 0.227273 117 43 33
0.252525 -1.545455 0.227273 106 43 33
0.277778 -1.575758 0.227273 112 28 33
0.303030 -1.545455 0.252525 117 43 37
0.252525 -1.545455 0.252525 106 43 37
0.277778 -1.575758 0.252525 112 28 37
0.303030 -1.545455 0.277778 117 43 41
0.252525 -1.545455 0.277778 106 43 41
0.277778 -1.575758 0.277778 112 28 41
0.303030 -1.545455 0.303030 117 43 45
0.252525 -1.545455 0.303030 106 43 45
0.277778 -1.575758 0.303030 112 28 45
0.277778 -1.545455 0.315657 112 43 47
0.303030 -1.545455 0.454545 117 43 69
0.277778 -1.575758 0.454545 112 28 69
0.277778 -1.545455 0.441919 112 43 67
0.277778 -1.575758 0.479798 112 28 73
0.303030 -1.545455 0.505051 117 43 77
0.252525 -1.545455 0.505051 106 43 77
0.277778 -1.575758 0.505051 112 28 77
0.303030 -1.545455 0.530303 117 43 80
0.252525 -1.545455 0.530303 106 43 80
0.277778 -1.575758 0.530303 112 28 80
0.277778 -1.545455 0.542929 112 43 82
0.303030 -1.545455 0.934343 117 43 143
0.252525 -1.545455 0.934343 106 43 143
0.277778 -1.575758 0.934343 112 28 143
0.277778 -1.545455 0.921717 112 43 141
0.252525 -1.545455 0.959596 106 43 147
0.277778 -1.575758 0.959596 112 28 147
0.252525 -1.545455 0.984848 106 43 151
0.277778 -1.575758 0.984848 112 28 151
0.252525 -1.545455 1.010101 106 43 155
0.277778 -1.575758 1.010101 112 28 155
0.252525 -1.545455 1.035354 106 43 159
0.277778 -1.575758 1.035354 112 28 159
0.252525 -1.545455 1.060606 106 43 163
0.277778 -1.575758 1.060606 112 28 163
0.277778 -1.575758 1.085859 112 28 167
0.252525 -1.545455 1.111111 106 43 171
0.277778 -1.575758 1.111111 112 28 171
0.252525 -1.545455 1.136364 106 43 175
0.277778 -1.575758 1.136364 112 28 175
0.277778 -1.545455 1.148990 112 43 177
0.303030 -1.545455 1.237374 117 43 190
0.252525 -1.545455 1.237374 106 43 190
0.277778 -1.575758 1.237374 112 28 190
0.277778 -1.545455 1.224747 112 43 188
0.303030 -1.545455 1.262626 117 43 194
0.252525 -1.545455 1.262626 106 43 194
0.277778 -1.575758 1.262626 112 28 194
0.277778 -1.545455 1.275253 112 43 196
0.303030 -1.484848 0.227273 117 71 33
0.252525 -1.484848 0.227273 106 71 33
0.277778 -1.454545 0.227273 112 85 33
0.277778 -1.484848 0.214646 112 71 31
0.303030 -1.484848 0.252525 117 71 37
0.252525 -1.484848 0.252525 106 71 37
0.277778 -1.454545 0.252525 112 85 37
0.303030 -1.484848 0.277778 117 71 41
0.252525 -1.484848 0.277778 106 71 41
0.277778 -1.454545 0.277778 112 85 41
0.303030 -1.484848 0.303030 117 71 45
0.277778 -1.454545 0.303030 112 85 45
0.303030 -1.484848 0.328283 117 71 49
0.277778 -1.454545 0.328283 112 85 49
0.277778 -1.515152 0.328283 112 57 49
0.303030 -1.484848 0.353535 117 71 53
0.277778 -1.454545 0.353535 112 85 53
0.277778 -1.515152 0.353535 112 57 53
0.277778 -1.515152 0.378788 112 57 57
0.277778 -1.515152 0.404040 112 57 61
0.277778 -1.515152 0.429293 112 57 65
0.277778 -1.515152 0.555556 112 57 84
0.277778 -1.515152 0.580808 112 57 88
0.277778 -1.515152 0.606061 112 57 92
0.277778 -1.515152 0.631313 112 57 96
0.277778 -1.515152 0.656566 112 57 100
0.277778 -1.515152 0.681818 112 57 104
0.277778 -1.515152 0.707071 112 57 108
0.277778 -1.515152 0.732323 112 57 112
0.277778 -1.515152 0.757576 112 57 116
0.277778 -1.515152 0.782828 112 57 120
0.277778 -1.515152 0.808081 112 57 124
0.277778 -1.515152 0.833333 112 57 128
0.277778 -1.515152 0.858586 112 57 131
0.277778 -1.515152 0.883838 112 57 135
0.277778 -1.515152 0.909091 112 57 139
0.277778 -1.515152 1.161616 112 57 179
0.277778 -1.515152 1.186869 112 57 182
0.277778 -1.515152 1.212121 112 57 186
0.252525 -1.484848 1.287879 106 71 198
0.277778 -1.515152 1.287879 112 57 198
0.252525 -1.484848 1.313131 106 71 202
0.277778 -1.515152 1.313131 112 57 202
0.277778 -1.484848 1.325758 112 71 204
0.303030 -1.424242 0.378788 117 99 57
0.252525 -1.424242 0.378788 106 99 57
0.277778 -1.393939 0.378788 112 113 57
0.277778 -1.424242 0.366162 112 99 55
0.303030 -1.424242 0.404040 117 99 61
0.252525 -1.424242 0.404040 106 99 61
0.277778 -1.393939 0.404040 112 113 61
0.303030 -1.424242 0.429293 117 99 65
0.252525 -1.424242 0.429293 106 99 65
0.303030 -1.424242 0.454545 117 99 69
0.252525 -1.424242 1.338384 106 99 206
0.277778 -1.454545 1.338384 112 85 206
0.252525 -1.424242 1.363636 106 99 210
0.277778 -1.454545 1.363636 112 85 210
0.277778 -1.424242 1.376263 112 99 212
0.303030 -1.363636 0.429293 117 128 65
0.252525 -1.363636 0.429293 106 128 65
0.277778 -1.333333 0.429293 112 142 65
0.277778 -1.363636 0.416667 112 128 63
0.277778 -1.333333 0.606061 112 142 92
0.277778 -1.393939 1.388889 112 113 214
0.252525 -1.363636 1.414141 106 128 218
0.277778 -1.393939 1.414141 112 113 218
0.252525 -1.363636 1.439394 106 128 222
0.277778 -1.393939 1.439394 112 113 222
0.277778 -1.363636 1.452020 112 128 224
0.252525 -1.303030 0.454545 106 156 69
0.277778 -1.272727 0.454545 112 170 69
0.277778 -1.303030 0.441919 112 156 67
0.252525 -1.303030 0.479798 106 156 73
0.277778 -1.272727 0.479798 112 170 73
0.252525 -1.303030 0.505051 106 156 77
0.277778 -1.272727 0.505051 112 170 77
0.252525 -1.303030 0.530303 106 156 80
0.277778 -1.272727 0.530303 112 170 80
0.252525 -1.303030 0.555556 106 156 84
0.277778 -1.272727 0.555556 112 170 84
0.252525 -1.303030 0.580808 106 156 88
0.277778 -1.272727 0.580808 112 170 88
0.277778 -1.303030 0.593434 112 156 90
0.252525 -1.303030 0.631313 106 156 96
0.277778 -1.272727 0.631313 112 170 96
0.277778 -1.303030 0.618687 112 156 94
0.252525 -1.303030 0.656566 106 156 100
0.277778 -1.272727 0.656566 112 170 100
0.252525 -1.303030 0.681818 106 156 104
0.277778 -1.272727 0.681818 112 170 104
0.277778 -1.272727 0.707071 112 170 108
0.277778 -1.272727 0.858586 112 170 131
0.277778 -1.272727 0.883838 112 170 135
0.277778 -1.272727 0.909091 112 170 139
0.277778 -1.272727 0.934343 112 170 143
0.277778 -1.272727 0.959596 112 170 147
0.252525 -1.303030 0.984848 106 156 151
0.277778 -1.272727 0.984848 112 170 151
0.303030 -1.303030 1.010101 117 156 155
0.252525 -1.303030 1.010101 106 156 155
0.277778 -1.272727 1.010101 112 170 155
0.303030 -1.303030 1.035354 117 156 159
0.252525 -1.303030 1.035354 106 156 159
0.277778 -1.272727 1.035354 112 170 159
0.303030 -1.303030 1.060606 117 156 163
0.252525 -1.303030 1.060606 106 156 163
0.277778 -1.272727 1.060606 112 170 163
0.303030 -1.303030 1.085859 117 156 167
0.252525 -1.303030 1.085859 106 156 167
0.277778 -1.272727 1.085859 112 170 167
0.277778 -1.272727 1.111111 112 170 171
0.277778 -1.272727 1.136364 112 170 175
0.277778 -1.272727 1.161616 112 170 179
0.277778 -1.272727 1.186869 112 170 182
0.303030 -1.303030 1.464646 117 156 226
0.277778 -1.333333 1.464646 112 142 226
0.303030 -1.303030 1.489899 117 156 230
0.277778 -1.272727 1.489899 112 170 230
0.277778 -1.333333 1.489899 112 142 230
0.303030 -1.303030 1.515152 117 156 233
0.277778 -1.333333 1.515152 112 142 233
0.303030 -1.303030 1.540404 117 156 237
0.277778 -1.333333 1.540404 112 142 237
0.277778 -1.303030 1.553030 112 156 239
0.252525 -1.242424 0.732323 106 184 112
0.277778 -1.212121 0.732323 112 198 112
0.277778 -1.242424 0.719697 112 184 110
0.303030 -1.242424 0.757576 117 184 116
0.252525 -1.242424 0.757576 106 184 116
0.277778 -1.212121 0.757576 112 198 116
0.303030 -1.242424 0.782828 117 184 120
0.252525 -1.242424 0.782828 106 184 120
0.277778 -1.212121 0.782828 112 198 120
0.303030 -1.242424 0.808081 117 184 124
0.252525 -1.242424 0.808081 106 184 124
0.277778 -1.212121 0.808081 112 198 124
0.303030 -1.242424 0.833333 117 184 128
0.252525 -1.242424 0.833333 106 184 128
0.277778 -1.212121 0.833333 112 198 128
0.277778 -1.242424 0.845960 112 184 129
0.303030 -1.242424 1.212121 117 184 186
0.277778 -1.212121 1.212121 112 198 186
0.277778 -1.242424 1.199495 112 184 184
0.303030 -1.242424 1.237374 117 184 190
0.277778 -1.212121 1.237374 112 198 190
0.277778 -1.212121 1.262626 112 198 194
0.277778 -1.212121 1.287879 112 198 198
0.277778 -1.212121 1.313131 112 198 202
0.277778 -1.212121 1.338384 112 198 206
0.277778 -1.212121 1.363636 112 198 210
0.277778 -1.212121 1.388889 112 198 214
0.277778 -1.212121 1.414141 112 198 218
0.277778 -1.212121 1.439394 112 198 222
0.303030 -1.242424 1.464646 117 184 226
0.277778 -1.212121 1.464646 112 198 226
0.277778 -1.242424 1.477273 112 184 228
0.277778 -1.242424 1.502525 112 184 231
0.277778 -1.272727 1.565657 112 170 241
0.303030 -1.242424 1.590909 117 184 245
0.277778 -1.272727 1.590909 112 170 245
0.303030 -1.242424 1.616162 117 184 249
0.277778 -1.272727 1.616162 112 170 249
0.277778 -1.242424 1.628788 112 184 251
0.303030 -1.181818 1.489899 117 213 230
0.277778 -1.151515 1.489899 112 227 230
0.277778 -1.212121 1.489899 112 198 230
0.277778 -1.181818 1.477273 112 213 228
0.303030 -1.181818 1.515152 117 213 233
0.277778 -1.151515 1.515152 112 227 233
0.303030 -1.181818 1.540404 117 213 237
0.277778 -1.151515 1.540404 112 227 237
0.277778 -1.151515 1.565657 112 227 241
0.303030 -1.181818 1.590909 117 213 245
0.277778 -1.151515 1.590909 112 227 245
0.303030 -1.181818 1.616162 117 213 249
0.277778 -1.151515 1.616162 112 227 249
0.277778 -1.181818 1.628788 112 213 251
0.353535 -1.545455 0.479798 128 43 73
0.328283 -1.575758 0.479798 122 28 73
0.328283 -1.545455 0.492424 122 43 75
0.328283 -1.545455 0.467172 122 43 71
0.353535 -1.545455 0.959596 128 43 147
0.328283 -1.575758 0.959596 122 28 147
0.328283 -1.545455 0.946970 122 43 145
0.353535 -1.545455 0.984848 128 43 151
0.328283 -1.575758 0.984848 122 28 151
0.353535 -1.545455 1.010101 128 43 155
0.328283 -1.575758 1.010101 122 28 155
0.353535 -1.545455 1.035354 128 43 159
0.328283 -1.575758 1.035354 122 28 159
0.353535 -1.545455 1.060606 128 43 163
0.328283 -1.575758 1.060606 122 28 163
0.353535 -1.545455 1.085859 128 43 167
0.328283 -1.575758 1.085859 122 28 167
0.353535 -1.545455 1.111111 128 43 171
0.328283 -1.575758 1.111111 122 28 171
0.353535 -1.545455 1.136364 128 43 175
0.328283 -1.575758 1.136364 122 28 175
0.353535 -1.545455 1.161616 128 43 179
0.303030 -1.545455 1.161616 117 43 179
0.328283 -1.575758 1.161616 122 28 179
0.328283 -1.545455 1.174242 122 43 180
0.353535 -1.545455 1.212121 128 43 186
0.303030 -1.545455 1.212121 117 43 186
0.328283 -1.575758 1.212121 122 28 186
0.328283 -1.545455 1.224747 122 43 188
0.328283 -1.545455 1.199495 122 43 184
0.353535 -1.484848 0.378788 128 71 57
0.328283 -1.454545 0.378788 122 85 57
0.328283 -1.515152 0.378788 122 57 57
0.328283 -1.484848 0.366162 122 71 55
0.353535 -1.484848 0.404040 128 71 61
0.328283 -1.454545 0.404040 122 85 61
0.328283 -1.515152 0.404040 122 57 61
0.353535 -1.484848 0.429293 128 71 65
0.328283 -1.454545 0.429293 122 85 65
0.328283 -1.515152 0.429293 122 57 65
0.353535 -1.484848 0.454545 128 71 69
0.328283 -1.454545 0.454545 122 85 69
0.328283 -1.515152 0.454545 122 57 69
0.353535 -1.484848 0.479798 128 71 73
0.353535 -1.484848 0.505051 128 71 77
0.328283 -1.515152 0.505051 122 57 77
0.328283 -1.515152 0.530303 122 57 80
0.328283 -1.515152 0.555556 122 57 84
0.328283 -1.515152 0.580808 122 57 88
0.328283 -1.515152 0.606061 122 57 92
0.328283 -1.515152 0.631313 122 57 96
0.328283 -1.515152 0.656566 122 57 100
0.328283 -1.515152 0.681818 122 57 104
0.328283 -1.515152 0.707071 122 57 108
0.328283 -1.515152 0.732323 122 57 112
0.328283 -1.515152 0.757576 122 57 116
0.328283 -1.515152 0.782828 122 57 120
0.328283 -1.515152 0.808081 122 57 124
0.328283 -1.515152 0.833333 122 57 128
0.328283 -1.515152 0.858586 122 57 131
0.328283 -1.515152 0.883838 122 57 135
0.328283 -1.515152 0.909091 122 57 139
0.328283 -1.515152 0.934343 122 57 143
0.328283 -1.515152 1.186869 122 57 182
0.328283 -1.515152 1.237374 122 57 190
0.328283 -1.515152 1.262626 122 57 194
0.328283 -1.515152 1.287879 122 57 198
0.353535 -1.484848 1.313131 128 71 202
0.328283 -1.515152 1.313131 122 57 202
0.353535 -1.484848 1.338384 128 71 206
0.303030 -1.484848 1.338384 117 71 206
0.328283 -1.515152 1.338384 122 57 206
0.328283 -1.484848 1.351010 122 71 208
0.328283 -1.424242 0.467172 122 99 71
0.328283 -1.454545 1.363636 122 85 210
0.303030 -1.424242 1.388889 117 99 214
0.328283 -1.454545 1.388889 122 85 214
0.328283 -1.424242 1.401515 122 99 216
0.328283 -1.393939 0.454545 122 113 69
0.328283 -1.363636 0.441919 122 128 67
0.328283 -1.333333 1.010101 122 142 155
0.328283 -1.333333 1.035354 122 142 159
0.328283 -1.333333 1.060606 122 142 163
0.328283 -1.333333 1.085859 122 142 167
0.328283 -1.393939 1.414141 122 113 218
0.328283 -1.393939 1.439394 122 113 222
0.303030 -1.363636 1.464646 117 128 226
0.328283 -1.333333 1.464646 122 142 226
0.328283 -1.393939 1.464646 122 113 226
0.328283 -1.363636 1.477273 122 128 228
0.303030 -1.303030 0.429293 117 156 65
0.328283 -1.272727 0.429293 122 170 65
0.328283 -1.333333 0.429293 122 142 65
0.328283 -1.303030 0.416667 122 156 63
0.328283 -1.272727 0.530303 122 170 80
0.328283 -1.272727 0.555556 122 170 84
0.328283 -1.272727 0.580808 122 170 88
0.303030 -1.303030 0.606061 117 156 92
0.328283 -1.272727 0.606061 122 170 92
0.328283 -1.272727 0.757576 122 170 116
0.328283 -1.272727 0.782828 122 170 120
0.328283 -1.272727 0.808081 122 170 124
0.328283 -1.272727 0.833333 122 170 128
0.328283 -1.272727 0.858586 122 170 131
0.328283 -1.272727 0.883838 122 170 135
0.328283 -1.272727 0.909091 122 170 139
0.328283 -1.272727 0.934343 122 170 143
0.328283 -1.272727 0.959596 122 170 147
0.328283 -1.272727 0.984848 122 170 151
0.328283 -1.303030 0.997475 122 156 153
0.353535 -1.303030 1.111111 128 156 171
0.328283 -1.272727 1.111111 122 170 171
0.328283 -1.303030 1.098485 122 156 169
0.353535 -1.303030 1.136364 128 156 175
0.328283 -1.272727 1.136364 122 170 175
0.328283 -1.272727 1.161616 122 170 179
0.328283 -1.272727 1.186869 122 170 182
0.328283 -1.272727 1.212121 122 170 186
0.328283 -1.272727 1.237374 122 170 190
0.328283 -1.303030 1.452020 122 156 224
0.303030 -1.242424 0.454545 117 184 69
0.328283 -1.212121 0.454545 122 198 69
0.328283 -1.242424 0.441919 122 184 67
0.303030 -1.242424 0.479798 117 184 73
0.328283 -1.212121 0.479798 122 198 73
0.303030 -1.242424 0.505051 117 184 77
0.328283 -1.212121 0.505051 122 198 77
0.328283 -1.242424 0.517677 122 184 78
0.303030 -1.242424 0.631313 117 184 96
0.328283 -1.212121 0.631313 122 198 96
0.328283 -1.242424 0.618687 122 184 94
0.303030 -1.242424 0.656566 117 184 100
0.328283 -1.212121 0.656566 122 198 100
0.303030 -1.242424 0.681818 117 184 104
0.328283 -1.212121 0.681818 122 198 104
0.303030 -1.242424 0.707071 117 184 108
0.328283 -1.212121 0.707071 122 198 108
0.353535 -1.242424 0.732323 128 184 112
0.328283 -1.212121 0.732323 122 198 112
0.328283 -1.242424 0.744949 122 184 114
0.353535 -1.242424 1.262626 128 184 194
0.328283 -1.212121 1.262626 122 198 194
0.328283 -1.242424 1.250000 122 184 192
0.353535 -1.242424 1.287879 128 184 198
0.328283 -1.212121 1.287879 122 198 198
0.328283 -1.212121 1.313131 122 198 202
0.328283 -1.212121 1.338384 122 198 206
0.328283 -1.212121 1.363636 122 198 210
0.328283 -1.212121 1.388889 122 198 214
0.328283 -1.212121 1.414141 122 198 218
0.328283 -1.212121 1.439394 122 198 222
0.328283 -1.242424 1.452020 122 184 224
0.353535 -1.242424 1.515152 128 184 233
0.328283 -1.212121 1.515152 122 198 233
0.328283 -1.272727 1.515152 122 170 233
0.328283 -1.242424 1.502525 122 184 231
0.353535 -1.242424 1.540404 128 184 237
0.328283 -1.212121 1.540404 122 198 237
0.328283 -1.272727 1.540404 122 170 237
0.353535 -1.242424 1.565657 128 184 241
0.328283 -1.272727 1.565657 122 170 241
0.328283 -1.242424 1.578283 122 184 243
0.353535 -1.181818 1.565657 128 213 241
0.328283 -1.151515 1.565657 122 227 241
0.328283 -1.181818 1.578283 122 213 243
0.328283 -1.181818 1.553030 122 213 239
0.378788 -1.515152 0.530303 133 57 80
0.378788 -1.484848 0.517677 133 71 78
0.378788 -1.515152 0.555556 133 57 84
0.378788 -1.515152 0.580808 133 57 88
0.378788 -1.515152 0.606061 133 57 92
0.378788 -1.515152 0.631313 133 57 96
0.378788 -1.515152 0.656566 133 57 100
0.378788 -1.515152 0.681818 133 57 104
0.378788 -1.515152 0.707071 133 57 108
0.378788 -1.515152 0.732323 133 57 112
0.378788 -1.515152 0.757576 133 57 116
0.378788 -1.515152 0.782828 133 57 120
0.378788 -1.515152 0.808081 133 57 124
0.378788 -1.515152 0.833333 133 57 128
0.378788 -1.515152 0.858586 133 57 131
0.378788 -1.515152 0.883838 133 57 135
0.378788 -1.515152 0.909091 133 57 139
0.378788 -1.515152 0.934343 133 57 143
0.378788 -1.515152 0.959596 133 57 147
0.378788 -1.515152 0.984848 133 57 151
0.378788 -1.515152 1.010101 133 57 155
0.378788 -1.515152 1.035354 133 57 159
0.404040 -1.484848 1.060606 138 71 163
0.378788 -1.515152 1.060606 133 57 163
0.404040 -1.484848 1.085859 138 71 167
0.378788 -1.515152 1.085859 133 57 167
0.404040 -1.484848 1.111111 138 71 171
0.378788 -1.515152 1.111111 133 57 171
0.404040 -1.484848 1.136364 138 71 175
0.378788 -1.515152 1.136364 133 57 175
0.404040 -1.484848 1.161616 138 71 179
0.378788 -1.515152 1.161616 133 57 179
0.404040 -1.484848 1.186869 138 71 182
0.378788 -1.515152 1.186869 133 57 182
0.404040 -1.484848 1.212121 138 71 186
0.378788 -1.515152 1.212121 133 57 186
0.404040 -1.484848 1.237374 138 71 190
0.378788 -1.515152 1.237374 133 57 190
0.404040 -1.484848 1.262626 138 71 194
0.378788 -1.515152 1.262626 133 57 194
0.404040 -1.484848 1.287879 138 71 198
0.378788 -1.515152 1.287879 133 57 198
0.378788 -1.484848 1.300505 133 71 200
0.378788 -1.454545 0.479798 133 85 73
0.378788 -1.424242 0.467172 133 99 71
0.378788 -1.454545 0.505051 133 85 77
0.404040 -1.424242 1.237374 138 99 190
0.404040 -1.424242 1.262626 138 99 194
0.404040 -1.424242 1.287879 138 99 198
0.404040 -1.424242 1.313131 138 99 202
0.378788 -1.454545 1.313131 133 85 202
0.378788 -1.454545 1.338384 133 85 206
0.404040 -1.424242 1.363636 138 99 210
0.378788 -1.454545 1.363636 133 85 210
0.404040 -1.424242 1.388889 138 99 214
0.378788 -1.454545 1.388889 133 85 214
0.378788 -1.424242 1.401515 133 99 216
0.353535 -1.363636 0.429293 127 128 65
0.378788 -1.393939 0.429293 133 113 65
0.378788 -1.363636 0.416667 133 128 63
0.378788 -1.393939 0.454545 133 113 69
0.378788 -1.333333 1.035354 133 142 159
0.404040 -1.363636 1.060606 138 128 163
0.378788 -1.333333 1.060606 133 142 163
0.404040 -1.363636 1.085859 138 128 167
0.378788 -1.333333 1.085859 133 142 167
0.404040 -1.363636 1.111111 138 128 171
0.378788 -1.333333 1.111111 133 142 171
0.404040 -1.363636 1.136364 138 128 175
0.378788 -1.333333 1.136364 133 142 175
0.404040 -1.363636 1.161616 138 128 179
0.404040 -1.363636 1.237374 138 128 190
0.404040 -1.363636 1.313131 138 128 202
0.378788 -1.393939 1.414141 133 113 218
0.378788 -1.393939 1.439394 133 113 222
0.378788 -1.393939 1.464646 133 113 226
0.378788 -1.363636 1.477273 133 128 228
0.378788 -1.272727 0.429293 133 170 65
0.378788 -1.303030 0.416667 133 156 63
0.378788 -1.272727 0.732323 133 170 112
0.378788 -1.272727 0.757576 133 170 116
0.378788 -1.272727 0.782828 133 170 120
0.378788 -1.272727 0.808081 133 170 124
0.378788 -1.272727 0.833333 133 170 128
0.378788 -1.272727 0.858586 133 170 131
0.378788 -1.272727 0.883838 133 170 135
0.378788 -1.272727 0.909091 133 170 139
0.378788 -1.272727 0.934343 133 170 143
0.404040 -1.303030 0.959596 138 156 147
0.378788 -1.272727 0.959596 133 170 147
0.404040 -1.303030 0.984848 138 156 151
0.378788 -1.272727 0.984848 133 170 151
0.404040 -1.303030 1.010101 138 156 155
0.353535 -1.303030 1.010101 127 156 155
0.378788 -1.272727 1.010101 133 170 155
0.378788 -1.303030 1.022727 133 156 157
0.404040 -1.303030 1.161616 138 156 179
0.378788 -1.272727 1.161616 133 170 179
0.378788 -1.303030 1.148990 133 156 177
0.404040 -1.303030 1.186869 138 156 182
0.378788 -1.272727 1.186869 133 170 182
0.404040 -1.303030 1.212121 138 156 186
0.378788 -1.272727 1.212121 133 170 186
0.404040 -1.303030 1.237374 138 156 190
0.378788 -1.272727 1.237374 133 170 190
0.404040 -1.303030 1.262626 138 156 194
0.378788 -1.272727 1.262626 133 170 194
0.404040 -1.303030 1.287879 138 156 198
0.378788 -1.272727 1.287879 133 170 198
0.404040 -1.303030 1.313131 138 156 202
0.404040 -1.303030 1.338384 138 156 206
0.404040 -1.303030 1.363636 138 156 210
0.404040 -1.303030 1.388889 138 156 214
0.404040 -1.303030 1.414141 138 156 218
0.404040 -1.303030 1.464646 138 156 226
0.353535 -1.303030 1.464646 127 156 226
0.378788 -1.272727 1.464646 133 170 226
0.378788 -1.303030 1.477273 133 156 228
0.378788 -1.212121 0.454545 133 198 69
0.378788 -1.242424 0.441919 133 184 67
0.378788 -1.212121 0.479798 133 198 73
0.378788 -1.212121 0.505051 133 198 77
0.353535 -1.242424 0.530303 127 184 80
0.378788 -1.212121 0.530303 133 198 80
0.353535 -1.242424 0.555556 127 184 84
0.378788 -1.212121 0.555556 133 198 84
0.353535 -1.242424 0.580808 127 184 88
0.378788 -1.212121 0.580808 133 198 88
0.353535 -1.242424 0.606061 127 184 92
0.378788 -1.212121 0.606061 133 198 92
0.378788 -1.212121 0.631313 133 198 96
0.378788 -1.212121 0.656566 133 198 100
0.378788 -1.212121 0.681818 133 198 104
0.378788 -1.212121 0.707071 133 198 108
0.378788 -1.242424 0.719697 133 184 110
0.404040 -1.242424 1.313131 138 184 202
0.378788 -1.212121 1.313131 133 198 202
0.378788 -1.242424 1.300505 133 184 200
0.404040 -1.242424 1.338384 138 184 206
0.378788 -1.212121 1.338384 133 198 206
0.404040 -1.242424 1.363636 138 184 210
0.378788 -1.212121 1.363636 133 198 210
0.404040 -1.242424 1.388889 138 184 214
0.378788 -1.212121 1.388889 133 198 214
0.404040 -1.242424 1.414141 138 184 218
0.378788 -1.212121 1.414141 133 198 218
0.404040 -1.242424 1.439394 138 184 222
0.378788 -1.212121 1.439394 133 198 222
0.378788 -1.242424 1.452020 133 184 224
0.454545 -1.484848 0.505051 149 71 77
0.404040 -1.484848 0.505051 138 71 77
0.429293 -1.515152 0.505051 143 57 77
0.429293 -1.484848 0.492424 143 71 75
0.454545 -1.484848 0.530303 149 71 80
0.429293 -1.515152 0.530303 143 57 80
0.454545 -1.484848 0.555556 149 71 84
0.429293 -1.515152 0.555556 143 57 84
0.454545 -1.484848 0.580808 149 71 88
0.429293 -1.515152 0.580808 143 57 88
0.454545 -1.484848 0.606061 149 71 92
0.429293 -1.515152 0.606061 143 57 92
0.454545 -1.484848 0.631313 149 71 96
0.429293 -1.515152 0.631313 143 57 96
0.454545 -1.484848 0.656566 149 71 100
0.429293 -1.515152 0.656566 143 57 100
0.454545 -1.484848 0.681818 149 71 104
0.429293 -1.515152 0.681818 143 57 104
0.454545 -1.484848 0.707071 149 71 108
0.429293 -1.515152 0.707071 143 57 108
0.429293 -1.515152 0.732323 143 57 112
0.429293 -1.515152 0.757576 143 57 116
0.429293 -1.515152 0.782828 143 57 120
0.454545 -1.484848 0.808081 149 71 124
0.429293 -1.515152 0.808081 143 57 124
0.454545 -1.484848 0.833333 149 71 128
0.429293 -1.515152 0.833333 143 57 128
0.454545 -1.484848 0.858586 149 71 131
0.429293 -1.515152 0.858586 143 57 131
0.454545 -1.484848 0.883838 149 71 135
0.429293 -1.515152 0.883838 143 57 135
0.454545 -1.484848 0.909091 149 71 139
0.429293 -1.515152 0.909091 143 57 139
0.454545 -1.484848 0.934343 149 71 143
0.429293 -1.515152 0.934343 143 57 143
0.454545 -1.484848 0.959596 149 71 147
0.429293 -1.515152 0.959596 143 57 147
0.454545 -1.484848 0.984848 149 71 151
0.429293 -1.515152 0.984848 143 57 151
0.454545 -1.484848 1.010101 149 71 155
0.429293 -1.515152 1.010101 143 57 155
0.454545 -1.484848 1.035354 149 71 159
0.429293 -1.515152 1.035354 143 57 159
0.429293 -1.484848 1.047980 143 71 161
0.454545 -1.424242 0.429293 149 99 65
0.404040 -1.424242 0.429293 138 99 65
0.429293 -1.454545 0.429293 143 85 65
0.429293 -1.424242 0.416667 143 99 63
0.404040 -1.424242 0.454545 138 99 69
0.429293 -1.454545 0.454545 143 85 69
0.429293 -1.454545 0.479798 143 85 73
0.454545 -1.424242 0.959596 149 99 147
0.454545 -1.424242 0.984848 149 99 151
0.454545 -1.424242 1.010101 149 99 155
0.454545 -1.424242 1.035354 149 99 159
0.454545 -1.424242 1.060606 149 99 163
0.429293 -1.393939 1.060606 143 113 163
0.429293 -1.454545 1.060606 143 85 163
0.454545 -1.424242 1.085859 149 99 167
0.429293 -1.393939 1.085859 143 113 167
0.429293 -1.454545 1.085859 143 85 167
0.454545 -1.424242 1.111111 149 99 171
0.429293 -1.393939 1.111111 143 113 171
0.429293 -1.454545 1.111111 143 85 171
0.454545 -1.424242 1.136364 149 99 175
0.429293 -1.393939 1.136364 143 113 175
0.429293 -1.454545 1.136364 143 85 175
0.454545 -1.424242 1.161616 149 99 179
0.429293 -1.393939 1.161616 143 113 179
0.429293 -1.454545 1.161616 143 85 179
0.454545 -1.424242 1.186869 149 99 182
0.429293 -1.454545 1.186869 143 85 182
0.454545 -1.424242 1.212121 149 99 186
0.429293 -1.454545 1.212121 143 85 186
0.429293 -1.424242 1.224747 143 99 188
0.454545 -1.424242 1.338384 149 99 206
0.429293 -1.454545 1.338384 143 85 206
0.429293 -1.424242 1.351010 143 99 208
0.429293 -1.424242 1.325758 143 99 204
0.404040 -1.363636 0.378788 138 128 57
0.429293 -1.393939 0.378788 143 113 57
0.429293 -1.363636 0.366162 143 128 55
0.404040 -1.363636 0.404040 138 128 61
0.429293 -1.393939 0.404040 143 113 61
0.454545 -1.363636 0.934343 149 128 143
0.454545 -1.363636 0.959596 149 128 147
0.429293 -1.333333 0.959596 143 142 147
0.454545 -1.363636 0.984848 149 128 151
0.429293 -1.333333 0.984848 143 142 151
0.454545 -1.363636 1.010101 149 128 155
0.429293 -1.333333 1.010101 143 142 155
0.454545 -1.363636 1.035354 149 128 159
0.429293 -1.333333 1.035354 143 142 159
0.429293 -1.363636 1.047980 143 128 161
0.454545 -1.363636 1.186869 149 128 182
0.429293 -1.333333 1.186869 143 142 182
0.429293 -1.363636 1.174242 143 128 180
0.454545 -1.363636 1.212121 149 128 186
0.429293 -1.333333 1.212121 143 142 186
0.429293 -1.363636 1.224747 143 128 188
0.454545 -1.363636 1.262626 149 128 194
0.429293 -1.333333 1.262626 143 142 194
0.429293 -1.393939 1.262626 143 113 194
0.429293 -1.363636 1.250000 143 128 192
0.454545 -1.363636 1.287879 149 128 198
0.429293 -1.333333 1.287879 143 142 198
0.429293 -1.393939 1.287879 143 113 198
0.429293 -1.363636 1.300505 143 128 200
0.454545 -1.363636 1.338384 149 128 206
0.429293 -1.333333 1.338384 143 142 206
0.429293 -1.363636 1.325758 143 128 204
0.454545 -1.363636 1.363636 149 128 210
0.429293 -1.333333 1.363636 143 142 210
0.429293 -1.393939 1.363636 143 113 210
0.429293 -1.333333 1.388889 143 142 214
0.429293 -1.393939 1.388889 143 113 214
0.429293 -1.333333 1.414141 143 142 218
0.429293 -1.393939 1.414141 143 113 218
0.429293 -1.393939 1.439394 143 113 222
0.429293 -1.333333 1.464646 143 142 226
0.429293 -1.393939 1.464646 143 113 226
0.429293 -1.363636 1.477273 143 128 228
0.404040 -1.303030 0.328283 138 156 49
0.429293 -1.272727 0.328283 143 170 49
0.429293 -1.333333 0.328283 143 142 49
0.429293 -1.303030 0.315657 143 156 47
0.404040 -1.303030 0.353535 138 156 53
0.429293 -1.333333 0.353535 143 142 53
0.404040 -1.303030 0.378788 138 156 57
0.429293 -1.272727 0.378788 143 170 57
0.404040 -1.303030 0.404040 138 156 61
0.429293 -1.272727 0.404040 143 170 61
0.429293 -1.272727 0.732323 143 170 112
0.429293 -1.272727 0.757576 143 170 116
0.454545 -1.303030 0.782828 149 156 120
0.429293 -1.272727 0.782828 143 170 120
0.454545 -1.303030 0.808081 149 156 124
0.429293 -1.272727 0.808081 143 170 124
0.454545 -1.303030 0.833333 149 156 128
0.429293 -1.272727 0.833333 143 170 128
0.454545 -1.303030 0.858586 149 156 131
0.429293 -1.272727 0.858586 143 170 131
0.454545 -1.303030 0.883838 149 156 135
0.429293 -1.272727 0.883838 143 170 135
0.454545 -1.303030 0.909091 149 156 139
0.429293 -1.272727 0.909091 143 170 139
0.454545 -1.303030 0.934343 149 156 143
0.429293 -1.272727 0.934343 143 170 143
0.429293 -1.303030 0.946970 143 156 145
0.454545 -1.303030 1.439394 149 156 222
0.429293 -1.272727 1.439394 143 170 222
0.429293 -1.303030 1.452020 143 156 224
0.429293 -1.303030 1.426768 143 156 220
0.404040 -1.242424 0.277778 138 184 41
0.429293 -1.212121 0.277778 143 198 41
0.429293 -1.272727 0.277778 143 170 41
0.429293 -1.242424 0.290404 143 184 43
0.429293 -1.242424 0.265152 143 184 39
0.404040 -1.242424 0.353535 138 184 53
0.429293 -1.212121 0.353535 143 198 53
0.429293 -1.242424 0.366162 143 184 55
0.429293 -1.242424 0.340909 143 184 51
0.454545 -1.242424 0.429293 149 184 65
0.404040 -1.242424 0.429293 138 184 65
0.429293 -1.212121 0.429293 143 198 65
0.429293 -1.242424 0.416667 143 184 63
0.454545 -1.242424 0.454545 149 184 69
0.429293 -1.212121 0.454545 143 198 69
0.429293 -1.212121 0.479798 143 198 73
0.429293 -1.212121 0.606061 143 198 92
0.429293 -1.212121 0.631313 143 198 96
0.454545 -1.242424 0.656566 149 184 100
0.429293 -1.212121 0.656566 143 198 100
0.454545 -1.242424 0.681818 149 184 104
0.429293 -1.212121 0.681818 143 198 104
0.454545 -1.242424 0.707071 149 184 108
0.429293 -1.212121 0.707071 143 198 108
0.429293 -1.242424 0.719697 143 184 110
0.404040 -1.181818 0.025253 138 213 2
0.429293 -1.151515 0.025253 143 227 2
0.429293 -1.212121 0.025253 143 198 2
0.429293 -1.181818 0.037879 143 213 4
0.404040 -1.181818 0.505051 138 213 77
0.429293 -1.151515 0.505051 143 227 77
0.429293 -1.181818 0.492424 143 213 75
0.404040 -1.181818 0.530303 138 213 80
0.429293 -1.151515 0.530303 143 227 80
0.404040 -1.181818 0.555556 138 213 84
0.429293 -1.151515 0.555556 143 227 84
0.404040 -1.181818 0.580808 138 213 88
0.429293 -1.151515 0.580808 143 227 88
0.429293 -1.181818 0.593434 143 213 90
0.505051 -1.484848 0.732323 159 71 112
0.479798 -1.515152 0.732323 154 57 112
0.479798 -1.484848 0.719697 154 71 110
0.505051 -1.484848 0.757576 159 71 116
0.479798 -1.515152 0.757576 154 57 116
0.505051 -1.484848 0.782828 159 71 120
0.479798 -1.515152 0.782828 154 57 120
0.479798 -1.484848 0.795455 154 71 122
0.505051 -1.424242 0.454545 159 99 69
0.479798 -1.454545 0.454545 154 85 69
0.479798 -1.424242 0.441919 154 99 67
0.505051 -1.424242 0.479798 159 99 73
0.479798 -1.454545 0.479798 154 85 73
0.505051 -1.424242 0.505051 159 99 77
0.479798 -1.454545 0.505051 154 85 77
0.505051 -1.424242 0.530303 159 99 80
0.479798 -1.454545 0.530303 154 85 80
0.505051 -1.424242 0.555556 159 99 84
0.479798 -1.454545 0.555556 154 85 84
0.505051 -1.424242 0.580808 159 99 88
0.479798 -1.454545 0.580808 154 85 88
0.505051 -1.424242 0.606061 159 99 92
0.479798 -1.454545 0.606061 154 85 92
0.505051 -1.424242 0.631313 159 99 96
0.479798 -1.454545 0.631313 154 85 96
0.505051 -1.424242 0.656566 159 99 100
0.479798 -1.454545 0.656566 154 85 100
0.505051 -1.424242 0.681818 159 99 104
0.479798 -1.454545 0.681818 154 85 104
0.505051 -1.424242 0.707071 159 99 108
0.479798 -1.454545 0.707071 154 85 108
0.505051 -1.424242 0.732323 159 99 112
0.505051 -1.424242 0.757576 159 99 116
0.505051 -1.424242 0.782828 159 99 120
0.505051 -1.424242 0.808081 159 99 124
0.479798 -1.454545 0.808081 154 85 124
0.505051 -1.424242 0.833333 159 99 128
0.479798 -1.454545 0.833333 154 85 128
0.505051 -1.424242 0.858586 159 99 131
0.479798 -1.454545 0.858586 154 85 131
0.505051 -1.424242 0.883838 159 99 135
0.479798 -1.454545 0.883838 154 85 135
0.505051 -1.424242 0.909091 159 99 139
0.479798 -1.454545 0.909091 154 85 139
0.505051 -1.424242 0.934343 159 99 143
0.479798 -1.393939 0.934343 154 113 143
0.479798 -1.454545 0.934343 154 85 143
0.479798 -1.424242 0.946970 154 99 145
0.454545 -1.424242 1.414141 149 99 218
0.479798 -1.454545 1.414141 154 85 218
0.479798 -1.424242 1.401515 154 99 216
0.454545 -1.424242 1.439394 149 99 222
0.479798 -1.454545 1.439394 154 85 222
0.454545 -1.424242 1.464646 149 99 226
0.479798 -1.454545 1.464646 154 85 226
0.479798 -1.424242 1.477273 154 99 228
0.505051 -1.363636 0.378788 159 128 57
0.479798 -1.393939 0.378788 154 113 57
0.479798 -1.363636 0.366162 154 128 55
0.505051 -1.363636 0.404040 159 128 61
0.479798 -1.393939 0.404040 154 113 61
0.505051 -1.363636 0.429293 159 128 65
0.479798 -1.393939 0.429293 154 113 65
0.505051 -1.363636 0.454545 159 128 69
0.505051 -1.363636 0.479798 159 128 73
0.505051 -1.363636 0.505051 159 128 77
0.505051 -1.363636 0.530303 159 128 80
0.505051 -1.363636 0.555556 159 128 84
0.505051 -1.363636 0.580808 159 128 88
0.505051 -1.363636 0.606061 159 128 92
0.505051 -1.363636 0.631313 159 128 96
0.505051 -1.363636 0.656566 159 128 100
0.505051 -1.363636 0.681818 159 128 104
0.505051 -1.363636 0.707071 159 128 108
0.505051 -1.363636 0.732323 159 128 112
0.505051 -1.363636 0.757576 159 128 116
0.505051 -1.363636 0.782828 159 128 120
0.479798 -1.333333 0.782828 154 142 120
0.505051 -1.363636 0.808081 159 128 124
0.479798 -1.333333 0.808081 154 142 124
0.505051 -1.363636 0.833333 159 128 128
0.479798 -1.333333 0.833333 154 142 128
0.505051 -1.363636 0.858586 159 128 131
0.479798 -1.333333 0.858586 154 142 131
